# .PCD v0.7 - Point Cloud Data file format
VERSION 0.7
FIELDS x y z normal_x normal_y normal_z
SIZE 4 4 4 4 4 4
TYPE F F F F F F
COUNT 1 1 1 1 1 1
WIDTH 104
HEIGHT 1
VIEWPOINT 0 0 0 1 0 0 0
POINTS 104
DATA ascii
-0.3145872 -1.015957 -1.623996 -0.1574224 -0.5519758 -0.8188657
0.06885955 -1.168313 -1.626736 0.08664045 -0.5519756 -0.8253097
-0.9988525 -0.287334 -1.676535 -0.543469 -0.1938324 -0.8167439
-0.397346 -0.416119 -1.909336 -0.2726464 -0.2870225 -0.9083413
0.3517479 -0.7209228 -1.778326 0.1862282 -0.2870225 -0.9221424
1.316953 -0.3844368 -1.568468 0.5465962 -0.1938318 -0.8146544
-1.203182 0.1333622 -1.597274 -0.5510827 0.09691628 -0.8230623
-0.3830102 0.4401913 -2.012591 -0.2815952 0.1913486 -0.9219326
0.3108641 0.1957807 -1.99288 0.1847551 0.1913485 -0.938217
1.030396 0.07695062 -1.801378 0.5495198 0.09691615 -0.8241066
-0.1813526 1.136244 -1.572974 -0.1679256 0.5519753 -0.8167767
0.1403193 1.0724 -1.747519 0.07603455 0.5519756 -0.8263543
-0.499117 -1.747279 -0.9230379 -0.2055894 -0.8260452 -0.5170073
0.2888351 -1.815803 -0.8860538 0.1671578 -0.8260453 -0.5241013
-1.103225 -1.185122 -1.219937 -0.5583397 -0.5896112 -0.5663556
-0.3491775 -1.31003 -1.310918 -0.2755074 -0.6648819 -0.6818175
0.5000876 -1.343147 -1.297241 0.2312066 -0.6724089 -0.6838717
1.016967 -1.162991 -1.223107 0.5663559 -0.5896108 -0.5583398
-1.72442 -0.2468123 -1.108707 -0.8146546 -0.1938321 -0.5465959
-1.250798 -0.8055854 -1.250343 -0.6553751 -0.3336176 -0.6599019
1.508578 -0.6065182 -1.426764 0.6599019 -0.3336177 -0.6553751
1.632829 -0.284391 -0.959681 0.816744 -0.1938322 -0.5434688
-1.508527 0.2211514 -0.9998659 -0.8241066 0.09691646 -0.54952
-1.311973 0.5608023 -1.405249 -0.6693431 0.2668944 -0.6657211
1.285629 0.490577 -1.356827 0.6657214 0.2668944 -0.6693428
1.550457 0.1088836 -1.279829 0.8230624 0.09691609 -0.5510826
-1.011871 1.030779 -1.231911 -0.5663556 0.589611 -0.5583399
-0.4649848 1.258987 -1.346467 -0.2873039 0.6648819 -0.6769311
0.3413934 1.239547 -1.268662 0.2190433 0.6724088 -0.687781
1.170185 1.224585 -1.041206 0.5583403 0.5896106 -0.5663557
-0.4870513 1.637885 -1.058311 -0.2202058 0.8260452 -0.5109529
0.1635608 1.609943 -0.9710205 0.1521887 0.8260453 -0.5286421
-0.8685935 -1.788382 -0.4477944 -0.5109527 -0.8260454 -0.2202059
-0.4204513 -1.750043 -0.4046643 -0.2108972 -0.9378558 -0.2228502
0.4562986 -1.98828 -0.6091344 0.1977121 -0.9387953 -0.2227764
0.8899406 -1.764853 -0.3764974 0.5170076 -0.826045 -0.2055894
-1.698477 -1.159649 -0.1990345 -0.8167762 -0.5519757 -0.1679267
-1.343876 -1.377982 -0.6450866 -0.6769306 -0.6648823 -0.2873045
1.382868 -1.334962 -0.6686145 0.6818175 -0.6648821 -0.2755073
1.611795 -1.233487 -0.3470767 0.818865 -0.5519768 -0.1574224
-1.581311 -0.6265164 -0.5342836 -0.9067326 -0.2870222 -0.2779501
1.938917 -0.7522372 -0.6026774 0.9083412 -0.2870219 -0.2726471
-1.921767 0.4385676 -0.3036846 -0.9230048 0.1913484 -0.2780605
1.86338 0.3648987 -0.5504776 0.9219326 0.1913485 -0.2815953
-1.734807 1.000675 -0.2985454 -0.8188656 0.5519756 -0.1574235
-1.570668 1.192605 -0.6040793 -0.6818171 0.6648821 -0.2755078
1.247118 1.382935 -0.6923816 0.6769314 0.6648816 -0.287304
1.637408 1.141963 -0.2403127 0.8167766 0.5519754 -0.1679259
-1.050667 1.671981 -0.4762158 -0.5170072 0.8260453 -0.2055892
-0.4506948 2.018719 -0.5188525 -0.2228502 0.9378557 -0.2108973
0.3796786 1.992022 -0.4271292 0.1850063 0.9387953 -0.2333234
0.882927 1.654674 -0.3511781 0.5109533 0.826045 -0.2202057
-1.158256 -1.698876 0.1040129 -0.5286421 -0.8260452 0.1521891
-0.4766267 -1.756578 0.2873745 -0.2333236 -0.9387953 0.1850063
0.4565971 -1.944797 0.3017652 0.1884426 -0.9425602 0.1992425
1.098548 -1.660623 0.2267436 0.5241014 -0.8260452 0.1671578
-1.80605 -0.981007 0.3576656 -0.8263545 -0.5519751 0.07603662
-1.548589 -1.462107 0.522367 -0.6877807 -0.672409 0.2190435
1.385516 -1.381937 0.4191529 0.6838719 -0.6724088 0.2312066
1.802166 -0.9796174 0.04924887 0.8253095 -0.5519758 0.08664058
-1.807675 -0.5597816 0.387201 -0.923215 -0.2870221 0.1808375
1.835327 -0.7451936 0.4959085 0.9221422 -0.2870226 0.1862285
-1.717383 0.5005774 0.2616291 -0.9375021 0.1913482 0.1883503
1.818458 0.3751615 0.5475098 0.938217 0.1913487 0.1847549
-1.758091 0.9824989 -0.008914724 -0.8253094 0.5519757 0.08664258
-1.383754 1.040939 0.6133101 -0.6838719 0.6724087 0.2312067
1.399923 1.41004 0.5438479 0.6877809 0.6724088 0.2190433
1.642827 1.168168 0.2521102 0.8263544 0.5519755 0.0760346
-0.9986408 1.566536 0.4426129 -0.5241014 0.8260453 0.1671579
-0.3725427 1.880898 0.195187 -0.2227767 0.9387953 0.1977123
0.2020218 1.78465 0.5164669 0.1992425 0.9425601 0.1884428
1.03385 1.468604 0.3280256 0.5286423 0.8260451 0.1521889
-0.383345 -1.7324 1.223185 -0.2202058 -0.8260452 0.5109528
0.3176071 -1.815872 0.9745539 0.1521884 -0.8260452 0.5286424
-1.069571 -0.9338061 1.116681 -0.5663557 -0.5896113 0.5583395
-0.5372252 -1.337771 1.348904 -0.2873044 -0.6648819 0.6769309
0.3299126 -1.348 1.394442 0.219043 -0.6724091 0.6877807
1.027415 -1.219729 0.9443355 0.5583397 -0.5896112 0.5663555
-1.549515 -0.3702701 1.133655 -0.8167439 -0.1938304 0.5434697
-1.311013 -0.4994779 1.305652 -0.6599022 -0.3336165 0.6553751
1.273853 -0.5379388 1.52663 0.6553752 -0.3336171 0.6599019
1.768869 -0.5988692 1.033082 0.8146545 -0.193831 0.5465963
-1.488646 0.008418575 0.9150603 -0.823062 0.09691569 0.5510832
-1.180123 0.5931643 1.436573 -0.6657221 0.2668936 0.6693424
1.234568 0.4633344 1.305781 0.6693427 0.266894 0.6657215
1.485141 0.3286409 1.068874 0.8241063 0.0969156 0.5495204
-1.061346 1.217804 1.147187 -0.5583401 0.5896108 0.5663556
-0.5540727 1.146923 1.555292 -0.2755079 0.6648818 0.6818174
0.4267227 1.255341 1.494796 0.2312063 0.6724091 0.6838717
1.064505 1.202242 1.118275 0.5663556 0.5896112 0.5583397
-0.4119366 1.436541 1.168601 -0.2055889 0.8260452 0.5170073
0.1513144 1.735899 1.135104 0.1671573 0.826045 0.5241017
-0.3227564 -1.14472 1.764149 -0.1679261 -0.5519761 0.8167761
0.05644733 -1.123144 1.43804 0.07603438 -0.5519758 0.8263542
-1.047888 -0.4740376 1.640664 -0.5465967 -0.1938308 0.8146544
-0.6464379 -0.4945521 1.725391 -0.2779504 -0.2870215 0.9067327
0.3151912 -0.521159 1.716951 0.1808362 -0.287022 0.9232152
1.067873 -0.3591743 1.568426 0.5434694 -0.1938317 0.8167437
-1.023814 0.08376319 1.512541 -0.5495201 0.09691555 0.8241066
-0.5126582 0.5690173 1.843336 -0.2780608 0.191348 0.9230048
0.5203156 0.3914176 1.834624 0.1883488 0.1913481 0.9375022
1.120491 0.2022417 1.688964 0.5510833 0.09691568 0.8230621
-0.1950255 1.115301 1.69966 -0.1574233 0.5519757 0.8188655
0.2084096 1.150391 1.774766 0.08664032 0.551976 0.8253095
