# .PCD v0.7 - Point Cloud Data file format
VERSION 0.7
FIELDS x y z normal_x normal_y normal_z
SIZE 4 4 4 4 4 4
TYPE F F F F F F
COUNT 1 1 1 1 1 1
WIDTH 163
HEIGHT 1
VIEWPOINT 0 0 0 1 0 0 0
POINTS 163
DATA ascii
-0.1085085 2.708551 -0.338382 -0.253575 -0.6769463 -0.6650535
0.2800515 2.695231 -0.3165883 0.5934016 -0.5519776 -0.5858287
-0.3401384 2.852246 -0.3525102 -0.6632708 -0.2870219 -0.6671583
-0.1097211 2.907929 -0.4641485 -0.2726478 -0.2870218 -0.9083411
0.06884333 2.854671 -0.4515632 0.1862289 -0.2870218 -0.9221424
0.3616342 2.84099 -0.3589655 0.6671578 -0.2870221 -0.6632712
-0.3363647 3.044014 -0.2871029 -0.6774548 0.1913481 -0.6748637
-0.1411207 3.101418 -0.485227 -0.2815957 0.1913485 -0.9219325
0.07943355 3.107364 -0.4867032 0.184755 0.1913485 -0.938217
0.3395302 3.086046 -0.3343876 0.6748634 0.1913482 -0.677455
-0.3540943 3.303188 -0.2944179 -0.5934002 0.5519767 -0.5858308
-0.1302641 3.355797 -0.3345362 -0.2657145 0.6769459 -0.6604485
0.09196998 3.364962 -0.3072641 0.1825836 0.6814643 -0.6754047
0.2409574 3.258893 -0.2873603 0.5858288 0.5519774 -0.5934017
-0.4624205 2.855896 -0.159174 -0.9067326 -0.2870228 -0.27795
0.4166568 2.832293 -0.1077551 0.9083411 -0.2870227 -0.2726463
-0.4166074 3.03575 -0.09122169 -0.923005 0.1913485 -0.27806
0.451614 3.116186 -0.1470438 0.9219322 0.1913486 -0.2815952
-0.3810786 3.307453 -0.08487549 -0.6650534 0.6769463 -0.2535745
-0.06708032 3.412503 -0.1415638 -0.2579747 0.9123584 -0.2462434
0.08886559 3.499822 -0.1716315 0.2207017 0.9157066 -0.2633643
0.320777 3.381852 -0.130524 0.660448 0.6769462 -0.2657151
0.288877 2.670796 0.05658703 0.6720555 -0.6814645 0.1950821
-0.4196289 2.857308 0.09168331 -0.9232147 -0.2870228 0.1808368
0.3860833 2.900436 0.1323163 0.9221424 -0.287022 0.1862287
-0.4520752 3.129347 0.09245933 -0.9375021 0.1913483 0.1883496
0.4364042 3.069216 0.1186433 0.9382172 0.1913479 0.1847551
-0.3436877 3.314748 0.1288293 -0.6720554 0.6814645 0.1950822
-0.1335452 3.484922 0.1511222 -0.2528063 0.9157068 0.2330949
0.09050385 3.468687 0.1579221 0.2298104 0.9219922 0.2190336
0.3493372 3.267862 0.09314428 0.6754048 0.6814646 0.1825837
-0.2811627 2.716675 0.3453468 -0.5934028 -0.5519803 0.5858249
-0.1293809 2.650076 0.3344476 -0.2657145 -0.6769463 0.6604478
0.04508944 2.663474 0.3225125 0.1825829 -0.6814646 0.6754048
0.3075011 2.693717 0.3092124 0.5858288 -0.5519774 0.5934017
-0.2707168 2.815009 0.2761686 -0.6671581 -0.287021 0.6632708
-0.1310711 2.887876 0.4256457 -0.2779504 -0.2870226 0.9067324
0.1138263 2.845875 0.4543413 0.1808365 -0.2870225 0.923215
0.3467506 2.833349 0.3678703 0.6632712 -0.2870212 0.6671582
-0.3322448 3.116758 0.3840646 -0.6748639 0.1913475 0.6774548
-0.1902377 3.104879 0.4672633 -0.2780605 0.1913486 0.9230047
0.0755569 3.062089 0.4853578 0.188349 0.1913483 0.9375022
0.3313192 3.097911 0.3455641 0.6774552 0.1913473 0.6748638
-0.3019675 3.227112 0.2866392 -0.5858292 0.5519785 0.5934003
-0.1662348 3.366339 0.3521156 -0.253575 0.6769462 0.6650535
0.07838253 3.3403 0.3748297 0.1950814 0.6814644 0.6720555
0.3356962 3.27073 0.3260694 0.5934016 0.5519776 0.5858287
-0.01075877 -1.44363 -1.371839 0.006815037 -0.702517 -0.7116343
-0.8563387 -0.7356101 -1.69311 -0.4306539 -0.3802126 -0.8134845
-0.5286732 -0.9892063 -1.685825 -0.2161306 -0.4947215 -0.8330418
0.216528 -0.9431549 -1.720415 0.1370138 -0.4832705 -0.8500466
0.8244816 -0.7302967 -1.630028 0.4371288 -0.380213 -0.8100234
-0.9134992 -0.3544376 -1.722797 -0.4585783 -0.1938323 -0.8619099
-0.4022134 -0.4658604 -1.922982 -0.1895459 -0.1938323 -0.9625494
0.1809476 -0.4471193 -1.961438 0.09755777 -0.1938326 -0.9714242
0.9132415 -0.3691133 -1.661809 0.4618792 -0.1938317 -0.8601456
-1.459759 0.01874675 -1.417393 -0.7071074 3.848038e-07 -0.7071063
-0.9565859 0.2021786 -1.794589 -0.4655025 0.09691625 -0.8689103
-0.4192241 0.2453028 -1.928773 -0.1941623 0.09691623 -0.9713005
0.237771 0.2319892 -1.970357 0.09568946 0.09691611 -0.981092
0.8824366 0.1689675 -1.736266 0.4638529 0.09691614 -0.869792
1.408374 0.01838932 -1.358193 0.7071068 9.440519e-08 -0.7071068
-0.8498829 0.763532 -1.577554 -0.4371282 0.3802128 -0.8100238
-0.4437816 0.9923342 -1.66208 -0.2253414 0.4947215 -0.8304996
0.2763788 0.9814345 -1.713392 0.1278705 0.4832707 -0.8515717
0.8591103 0.71876 -1.63744 0.4306547 0.3802131 -0.8134839
-0.01449052 1.420776 -1.434002 -0.006815039 0.7025169 -0.7116345
-0.9277486 -1.403467 -0.9144552 -0.467204 -0.7333995 -0.4771726
-0.3843761 -1.708127 -1.026 -0.1753385 -0.8169605 -0.5245251
0.3014818 -1.656904 -1.007904 0.1497789 -0.8291716 -0.510655
0.944422 -1.454777 -0.9219264 0.4771731 -0.7333993 -0.4672037
-1.643307 -0.7703351 -0.844007 -0.8100238 -0.3802122 -0.4371288
-1.18234 -1.024647 -1.220011 -0.5965914 -0.5090351 -0.603502
1.247208 -1.015126 -1.190845 0.6035021 -0.5090348 -0.5965915
1.600899 -0.7754283 -0.8928406 0.8134843 -0.3802123 -0.4306548
-1.719272 -0.3323275 -0.9418724 -0.8601455 -0.1938322 -0.4618793
-1.408407 -0.36945 -1.366103 -0.6923658 -0.1938323 -0.6950243
1.389284 -0.3976303 -1.411683 0.6950245 -0.193832 -0.6923656
1.744999 -0.3957867 -0.8829947 0.86191 -0.193832 -0.4585783
-1.714667 0.2499093 -0.9689294 -0.8697919 0.09691626 -0.4638533
-1.418605 0.3614416 -1.403514 -0.6950251 0.1938329 -0.6923646
1.358591 0.4428479 -1.329206 0.6923655 0.193832 -0.6950245
1.756181 0.1895377 -0.94091 0.8689103 0.09691603 -0.4655025
-1.575486 0.7407307 -0.8733022 -0.8134838 0.380213 -0.4306549
-1.214594 0.9792206 -1.202415 -0.6035021 0.5090348 -0.5965915
1.168368 1.012447 -1.189507 0.5965915 0.5090349 -0.6035022
1.628345 0.7172407 -0.8231681 0.8100238 0.380213 -0.4371281
-0.9101934 1.525156 -0.9368864 -0.4771726 0.7333993 -0.4672042
-0.3900899 1.615895 -1.037246 -0.1901561 0.8169605 -0.5193357
0.2651818 1.694792 -1.050582 0.1344949 0.8291715 -0.5146912
0.9564337 1.496258 -0.9332967 0.4672045 0.733399 -0.4771727
-0.9965838 -1.6748 -0.4072327 -0.5193355 -0.8169606 -0.1901562
-0.3168562 -1.918588 -0.3690544 -0.1807213 -0.9570686 -0.1930976
0.2625248 -1.935966 -0.3661179 0.1764022 -0.9585994 -0.1849053
1.044088 -1.662467 -0.3370666 0.5245253 -0.8169603 -0.1753385
-1.645736 -1.012226 -0.4621768 -0.8304994 -0.4947213 -0.2253422
1.684314 -0.9668375 -0.4063547 0.8330414 -0.494722 -0.216131
-1.908978 -0.4247098 -0.4207727 -0.9618157 -0.1938326 -0.1932344
1.915169 -0.394278 -0.4136888 0.9625495 -0.1938313 -0.1895465
-1.932752 0.1670439 -0.3382867 -0.9716673 0.09691621 -0.1923181
1.985357 0.2028551 -0.3818406 0.9713005 0.09691616 -0.1941626
-1.673293 1.000532 -0.3941354 -0.8330416 0.4947214 -0.2161316
1.637227 0.9985091 -0.479799 0.8304996 0.4947215 -0.2253416
-1.386856 -1.402943 -0.03141117 -0.7116336 -0.7025177 -0.006813715
-1.016568 -1.667034 0.2781121 -0.5146911 -0.8291715 0.1344952
-0.3644705 -1.896113 0.2861937 -0.1961567 -0.9585994 0.1634333
0.2909074 -1.971076 0.3001882 0.1557317 -0.9629617 0.1667053
1.016392 -1.659671 0.2518485 0.5106551 -0.8291715 0.149779
1.455825 -1.394036 0.0261888 0.7116344 -0.7025169 0.006815033
-1.707215 -0.9203471 0.2514809 -0.851572 -0.4832702 0.1278718
1.685854 -1.020668 0.2908973 0.8500463 -0.483271 0.1370141
-1.957392 -0.3551578 0.1401689 -0.9717911 -0.1938316 0.09383499
1.918972 -0.3955355 0.1699767 0.9714244 -0.1938317 0.09755746
-1.99392 0.2214356 0.1778442 -0.9809084 0.09691603 0.09755323
1.992464 0.2536334 0.1968522 0.9810919 0.09691619 0.09568904
-1.692585 0.9735618 0.2501536 -0.8500468 0.4832703 0.1370151
1.707689 0.9668388 0.2903016 0.8515717 0.4832709 0.1278704
-1.404563 1.407681 0.0222239 -0.7116336 0.7025178 0.00681652
1.459408 1.432217 0.002014365 0.7116344 0.702517 -0.006815039
-0.9222935 -1.476017 0.8996869 -0.4771729 -0.7333994 0.4672039
-0.3174045 -1.620083 0.9876176 -0.1901563 -0.8169604 0.5193357
0.2518872 -1.655894 1.04727 0.1344946 -0.8291715 0.5146914
0.8793497 -1.459671 0.8650556 0.4672042 -0.7333992 0.4771729
-1.644948 -0.7965892 0.8439534 -0.8134847 -0.3802122 0.430654
-1.170206 -0.9870595 1.179999 -0.6035022 -0.5090349 0.5965912
1.231609 -1.030959 1.187585 0.5965914 -0.509035 0.6035018
1.637816 -0.7350759 0.8546957 0.8100237 -0.3802128 0.4371287
-1.724936 -0.4107569 0.8984009 -0.86191 -0.1938308 0.4585788
-1.365249 -0.3718397 1.362646 -0.6950251 -0.1938305 0.6923653
1.338501 -0.380376 1.367271 0.6923657 -0.1938311 0.6950246
1.692457 -0.2776507 0.8598906 0.8601454 -0.1938316 0.4618797
-1.752675 0.2198747 0.8999641 -0.8689101 0.0969158 0.465503
-1.432512 0.3943317 1.369654 -0.6923662 0.1938311 0.6950241
1.394192 0.3666517 1.346278 0.6950247 0.1938311 0.6923656
1.736568 0.2018766 0.8733366 0.8697918 0.09691569 0.4638535
-1.573643 0.7934285 0.8452562 -0.810024 0.3802126 0.4371282
-1.182726 1.017626 1.23798 -0.5965918 0.5090346 0.6035018
1.204687 1.044174 1.175573 0.6035019 0.5090352 0.5965913
1.583794 0.7784759 0.8833207 0.8134838 0.3802134 0.4306544
-0.9176298 1.442319 0.933527 -0.4672043 0.7333992 0.4771728
-0.3576001 1.679984 0.9749562 -0.1753383 0.8169604 0.5245252
0.2818816 1.602461 1.039502 0.1497785 0.8291715 0.5106553
0.9129664 1.457322 0.9416205 0.477173 0.7333992 0.4672042
-0.04904785 -1.490661 1.402516 -0.006814984 -0.7025176 0.7116338
-0.8288352 -0.748161 1.589389 -0.4371292 -0.3802119 0.8100237
-0.4579844 -0.9756218 1.627937 -0.2253421 -0.4947213 0.8304994
0.2828857 -0.9364209 1.691854 0.1278703 -0.4832704 0.851572
0.8506684 -0.7349256 1.666674 0.4306543 -0.3802125 0.8134843
-0.9372591 -0.4386697 1.784277 -0.4618798 -0.1938307 0.8601456
-0.3880211 -0.3544303 1.93677 -0.1932347 -0.1938313 0.961816
0.1399229 -0.3878716 1.918729 0.09383259 -0.1938313 0.9717914
0.9666233 -0.4083004 1.698449 0.4585785 -0.1938317 0.8619099
-1.378808 0.002240069 1.410822 -0.7071075 2.975819e-08 0.7071062
-0.9311144 0.1479391 1.727519 -0.4638532 0.0969156 0.869792
-0.3720956 0.1556784 1.936179 -0.1923186 0.09691571 0.9716673
0.1887892 0.213808 1.932842 0.09755074 0.09691562 0.9809087
0.9002633 0.1886241 1.772667 0.4655031 0.09691578 0.8689101
1.448077 0.07159974 1.399115 0.7071067 2.052287e-09 0.7071068
-0.8508225 0.7953864 1.553419 -0.4306549 0.3802124 0.8134841
-0.4501313 0.9841949 1.684544 -0.2161319 0.4947213 0.8330415
0.2700373 1.000026 1.641197 0.1370136 0.4832707 0.8500466
0.8635665 0.7882296 1.60367 0.4371284 0.3802131 0.8100235
0.0601524 1.461207 1.394505 0.00681499 0.7025174 0.7116339
